158,158,158,158,158,158,158,158,158,158,158,158,158,158,158,158,158,158,158,158,158,158,158,158,158,158,158,158,158,158,158,158,158,158,158,158,158,158,158,158,158,158,158,158,158,158,158,158,158,158,158,158,158,158,158,158,158,158,158,158,158,158,158,158,158,158,158,158,158,158,158,158,158,158,158,158,158,158,158,158,158,158,158,158,158,158,158,158,158,158,158,158,158,158,158,158,158,158,158,158
158,158,158,158,158,158,158,158,158,158,158,158,158,158,158,158,158,158,158,158,158,158,158,158,158,158,158,158,158,158,158,158,158,158,158,158,158,158,158,158,158,158,158,158,158,158,158,158,158,158,158,158,158,158,158,158,158,158,158,158,158,158,158,158,158,158,158,158,158,158,158,158,158,158,158,158,158,158,158,158,158,158,158,158,158,158,158,158,158,158,158,158,158,158,158,158,158,158,158,158
158,158,158,158,158,158,158,158,158,158,158,158,158,158,158,158,158,158,158,158,158,158,158,158,158,158,158,158,158,158,158,158,158,158,158,158,158,158,158,158,158,158,158,158,158,158,158,158,158,158,158,158,158,158,158,158,158,158,158,158,158,158,158,158,158,158,158,158,158,158,158,158,158,158,158,158,111,112,112,112,112,112,112,112,112,112,112,112,112,112,112,113,158,158,158,158,158,158,158,158
158,158,158,158,158,158,158,158,111,112,112,112,112,112,112,112,112,113,158,158,158,111,112,112,112,112,112,112,112,112,112,112,112,112,112,113,158,158,158,158,158,158,158,158,158,158,158,158,158,158,158,158,158,158,158,158,158,158,158,158,158,158,158,158,158,158,158,158,158,158,158,158,158,158,111,112,137,139,139,139,139,77,139,139,139,139,139,139,139,139,139,136,113,158,158,158,158,158,158,158
158,158,158,158,158,158,158,111,147,134,134,134,134,134,134,134,134,136,113,158,111,137,134,134,134,134,134,134,134,134,134,134,134,134,134,136,113,158,158,158,158,158,158,158,158,158,158,158,111,56,112,112,113,158,158,158,158,158,158,158,158,158,158,158,158,158,158,158,158,158,158,158,158,111,137,139,139,139,139,139,139,139,139,139,139,139,53,139,139,139,139,139,136,112,113,158,158,158,158,158
158,158,158,158,158,158,111,147,134,134,134,134,134,134,134,134,134,134,136,112,137,134,134,134,134,134,134,134,134,134,134,134,134,134,134,134,136,113,158,158,158,158,158,158,158,158,111,112,137,134,139,139,136,113,158,158,158,158,158,158,158,158,158,158,158,158,158,158,158,158,158,158,158,133,139,139,139,139,139,139,139,139,139,139,139,139,139,139,139,139,139,139,139,139,136,113,158,158,158,158
158,158,158,158,158,158,133,134,134,134,134,134,134,134,134,134,134,134,134,134,134,134,134,134,134,134,134,134,134,134,134,134,134,134,134,134,134,136,113,158,158,158,158,158,111,112,137,134,134,134,139,139,139,136,113,158,158,158,158,158,158,158,158,158,158,158,158,158,158,158,158,158,111,137,139,139,139,139,139,139,139,139,139,77,139,139,139,139,139,114,115,139,139,139,139,135,158,158,158,158
158,158,158,158,158,111,147,134,134,134,134,134,134,134,134,134,134,134,134,134,134,134,134,134,134,134,134,134,134,134,134,134,134,134,134,134,134,134,136,112,112,112,112,112,137,134,134,134,99,134,139,139,139,139,136,113,158,158,158,158,158,158,158,158,158,158,158,158,158,158,158,111,137,134,139,139,139,139,139,139,139,139,139,139,139,139,77,139,114,157,155,115,139,139,139,135,158,158,158,158
158,158,158,158,158,133,134,134,134,134,134,134,134,134,134,134,134,134,134,134,134,134,134,134,134,134,134,134,134,134,134,134,134,134,134,134,134,134,134,134,134,134,134,134,134,134,134,134,134,134,139,139,139,139,139,135,158,158,158,158,158,158,158,158,158,158,158,158,158,158,158,133,139,139,139,139,139,139,139,139,53,139,139,139,139,139,139,139,136,113,158,133,139,139,77,135,158,158,158,158
158,158,158,158,158,133,134,134,134,134,134,134,134,134,134,134,134,134,134,134,134,134,134,134,134,134,134,134,134,134,134,134,134,134,134,134,134,134,134,134,134,134,134,134,134,134,134,77,134,134,134,139,139,99,139,136,112,113,158,158,158,158,158,158,158,158,158,158,158,158,158,133,139,53,139,139,139,139,139,139,139,139,139,139,139,139,139,139,134,136,112,137,139,139,139,135,158,158,158,158
158,158,158,158,158,133,134,134,134,134,134,134,134,134,134,134,134,134,134,134,134,134,134,134,134,134,134,134,134,134,134,134,134,134,134,134,134,134,134,134,134,134,134,134,134,134,134,134,134,134,134,139,139,139,139,139,139,136,113,158,158,158,158,158,158,158,158,158,158,158,158,133,139,139,139,139,139,139,139,139,139,139,139,139,139,139,139,139,139,139,139,139,139,139,139,135,158,158,158,158
158,158,158,158,158,133,134,134,134,134,134,134,134,134,134,134,134,134,134,134,134,134,134,134,134,134,134,134,134,134,134,134,134,134,134,134,134,134,134,134,134,134,134,134,134,134,134,134,134,134,134,134,139,139,139,139,53,139,135,158,158,158,158,158,158,158,158,158,158,158,158,155,115,139,139,139,139,139,139,139,139,139,139,139,139,139,139,139,139,139,139,139,139,139,114,157,158,158,158,158
158,158,158,158,158,155,125,134,134,134,134,134,134,134,134,134,134,134,134,134,134,134,134,134,134,134,134,134,134,134,134,134,134,134,134,134,134,134,134,134,134,134,134,134,134,134,134,134,134,134,134,134,139,139,139,139,139,139,136,112,113,158,158,158,158,158,158,158,158,158,158,158,155,115,139,139,139,139,139,139,139,139,139,139,139,139,53,139,139,139,77,139,77,139,135,158,158,158,158,158
158,158,158,158,158,158,155,156,125,134,134,134,134,134,134,134,134,134,134,134,134,134,134,134,134,134,134,134,134,134,134,134,134,134,134,134,134,134,134,134,134,134,134,134,134,134,134,134,134,134,134,134,139,139,139,139,139,139,139,139,135,158,158,158,158,158,158,158,158,158,158,158,158,155,115,139,139,139,139,139,139,139,77,139,139,139,139,139,139,139,139,139,139,114,157,158,158,158,158,158
158,158,158,158,158,158,158,158,155,125,134,134,134,134,134,134,134,134,134,134,134,134,134,134,134,134,134,134,134,134,134,134,134,134,134,134,134,134,134,134,134,134,134,134,134,134,134,134,53,134,134,139,139,139,139,139,139,139,139,139,136,112,113,158,158,158,158,158,158,158,158,158,158,158,155,156,156,115,139,139,139,139,139,139,139,139,139,139,139,139,139,139,114,157,158,158,158,158,158,158
158,158,158,158,158,158,158,158,158,155,125,134,134,134,134,134,134,134,134,134,134,134,134,134,134,134,134,134,134,134,134,134,134,134,134,134,134,134,134,134,134,134,134,134,134,134,134,134,134,134,134,134,139,139,139,139,139,139,139,139,139,139,136,113,158,158,158,158,158,158,158,158,158,158,158,158,158,155,156,156,156,156,156,156,156,156,156,156,156,156,156,156,157,158,158,158,158,158,158,158
158,158,158,158,158,158,158,158,158,158,133,134,134,134,134,134,134,134,134,134,134,134,134,134,134,134,134,134,134,134,134,134,134,134,134,134,134,134,134,134,134,134,134,134,134,134,134,134,134,134,139,53,139,139,139,139,139,139,139,139,139,139,134,135,158,158,158,158,158,158,158,158,158,158,158,158,158,158,158,158,158,158,158,158,158,158,158,158,158,158,158,158,158,158,158,158,158,158,158,158
158,158,158,158,158,158,158,158,158,158,133,134,134,134,134,134,134,134,134,134,134,134,134,134,134,134,134,134,134,134,134,134,134,134,134,134,134,134,134,134,134,134,134,134,134,134,134,134,99,134,139,139,139,139,139,139,139,139,139,139,139,139,139,136,113,158,158,158,158,158,158,158,158,158,158,158,158,158,158,158,158,158,158,158,158,158,158,158,158,158,158,158,158,158,158,158,158,158,158,158
158,158,158,158,158,158,158,158,158,158,133,134,134,134,134,134,134,134,134,134,134,134,134,134,134,134,134,134,134,134,134,134,134,134,134,134,134,134,134,134,134,134,134,134,134,134,134,134,134,134,139,139,139,139,139,139,139,139,139,139,139,139,139,139,136,112,112,112,112,112,113,158,158,158,158,158,158,158,158,158,158,158,158,158,158,158,158,158,158,158,158,158,158,158,158,158,158,158,158,158
158,158,158,158,158,158,158,158,158,158,133,134,134,134,134,134,134,134,134,134,134,134,134,134,134,134,134,134,134,134,134,134,134,134,134,134,134,134,134,134,134,134,134,134,134,134,134,134,134,134,134,139,139,139,139,139,139,139,139,139,139,139,139,139,139,139,139,139,139,139,136,112,112,113,158,158,158,158,158,158,158,158,158,158,158,158,158,158,158,158,158,158,158,158,158,158,158,158,158,158
158,158,158,158,158,158,158,158,158,158,133,134,134,134,134,134,134,134,134,134,134,134,134,134,134,134,134,134,134,134,134,134,134,134,134,134,134,134,134,134,134,134,134,134,134,134,134,134,134,134,139,139,139,139,139,139,139,139,139,139,139,139,139,139,139,139,139,139,139,139,139,139,139,136,112,112,112,112,113,158,158,158,158,158,158,158,158,158,158,158,158,158,158,158,158,158,158,158,158,158
158,158,158,158,158,158,158,111,117,117,142,134,134,134,134,134,134,134,134,134,134,134,134,134,134,134,134,134,134,134,134,134,134,134,134,134,134,134,134,134,134,134,134,134,134,134,134,134,134,53,134,139,139,139,139,139,139,139,139,139,139,139,139,139,33,139,53,139,139,139,139,139,139,139,139,139,139,139,136,112,112,112,113,158,158,158,158,158,158,158,158,158,158,158,158,158,158,158,158,158
158,158,158,158,158,158,111,137,134,134,134,134,134,134,134,134,134,134,134,134,134,134,134,134,134,134,134,134,134,134,134,134,134,134,134,134,134,134,134,134,134,134,134,134,134,134,134,134,134,134,134,134,139,139,134,139,139,139,139,139,139,139,53,139,139,139,139,139,139,139,77,139,33,139,139,139,139,139,139,139,139,139,136,112,113,158,158,158,158,158,158,158,158,158,158,158,158,158,158,158
158,158,158,158,158,158,133,134,134,134,134,134,134,134,134,134,134,134,134,134,134,134,134,134,134,134,134,134,134,134,134,134,134,134,134,134,134,134,134,134,134,134,134,134,134,134,134,134,134,134,134,134,139,139,134,139,139,139,139,139,77,139,139,139,139,139,139,139,139,139,139,139,139,139,139,139,139,139,139,12,26,13,139,139,136,112,113,158,158,158,158,111,112,112,112,113,158,158,158,158
158,158,158,158,158,158,133,134,134,134,134,134,134,134,134,134,134,134,134,134,134,134,134,134,134,134,134,134,134,134,134,134,134,134,134,134,134,134,134,134,134,134,134,134,134,134,134,134,134,134,134,134,139,139,134,139,139,139,139,139,139,139,139,139,139,139,139,139,53,139,139,139,139,139,139,139,139,139,139,19,14,17,139,139,139,139,136,112,112,112,112,137,139,139,139,136,113,158,158,158
158,158,158,158,158,158,133,134,134,134,134,134,134,134,134,134,134,134,134,134,134,134,134,134,134,134,134,134,134,134,134,134,134,134,134,134,134,134,134,134,134,134,134,134,134,134,134,134,134,134,134,134,134,139,53,139,139,139,139,33,139,139,139,139,139,139,139,139,139,139,139,139,139,139,139,139,139,139,139,19,28,17,139,139,139,52,139,139,139,139,139,139,52,139,139,139,135,158,158,158
158,158,158,158,158,158,133,134,134,134,134,134,134,134,134,134,134,134,134,134,134,134,134,134,134,134,134,134,134,134,134,134,134,134,134,134,134,134,134,134,134,134,134,134,134,134,134,134,134,134,134,134,134,139,134,139,139,139,139,139,139,139,139,139,139,139,139,139,139,139,139,139,139,139,139,139,139,139,139,19,14,17,139,139,139,139,139,139,139,139,139,139,139,139,139,139,135,158,158,158
158,158,158,158,158,111,137,134,134,134,134,134,134,134,134,134,134,134,134,134,134,134,134,134,134,134,134,134,134,134,134,134,134,134,134,134,134,134,134,134,134,134,134,134,134,134,134,134,134,134,134,139,139,139,134,139,139,53,139,139,139,139,139,139,139,139,139,139,139,139,139,139,139,139,139,139,139,139,12,27,9,21,139,139,139,139,139,139,139,139,139,139,139,139,139,139,135,158,158,158
158,158,158,158,158,133,134,134,134,134,134,134,134,134,134,134,134,134,134,134,134,134,134,134,134,134,134,134,134,134,134,134,134,134,134,134,134,134,134,134,134,134,134,134,134,77,134,134,134,134,139,53,139,139,134,134,139,139,139,139,139,139,139,139,139,139,139,139,139,139,139,139,139,139,139,77,12,26,27,9,21,139,139,139,139,139,139,139,52,139,139,139,139,139,139,52,135,158,158,158
158,158,158,158,111,137,134,134,134,134,134,134,134,134,134,134,134,134,134,134,134,134,134,134,134,134,134,134,134,134,134,134,134,134,134,134,134,134,134,134,134,134,134,134,134,134,134,134,134,134,139,139,139,139,139,134,139,139,53,139,53,139,139,139,139,139,139,139,139,139,139,139,53,12,26,26,27,9,10,21,139,139,139,139,139,139,139,139,139,139,139,139,139,139,139,139,135,158,158,158
158,158,158,158,133,134,134,134,134,134,134,134,134,134,134,134,134,134,134,134,134,134,134,134,134,134,134,134,134,134,134,134,134,134,134,134,134,134,134,134,134,134,134,134,134,134,134,134,134,134,139,139,139,139,139,134,139,139,139,139,139,139,139,139,139,139,139,139,139,139,139,139,12,27,9,10,10,21,139,139,139,139,139,139,139,139,139,139,139,139,139,139,139,139,139,139,135,158,158,158
158,158,158,158,133,134,134,134,134,134,134,134,134,134,134,134,134,134,134,134,134,134,134,134,134,134,134,134,134,134,134,134,134,134,134,134,134,134,134,134,134,134,134,134,134,134,134,134,134,134,139,139,139,139,139,77,139,139,139,139,139,139,139,139,139,139,139,139,139,139,139,12,27,9,21,139,139,139,139,139,139,139,139,139,139,139,139,139,139,139,139,139,139,139,139,139,135,158,158,158
158,158,158,158,133,134,134,134,134,134,134,134,134,134,134,134,134,134,134,134,134,134,134,134,134,134,134,134,134,134,134,134,134,134,134,134,134,134,134,134,134,134,134,134,134,134,134,99,134,134,139,53,139,139,139,139,139,139,139,139,139,139,139,139,139,139,53,139,139,139,12,27,9,21,139,139,139,139,139,139,139,139,139,139,139,139,139,139,139,139,139,139,139,139,139,139,135,158,158,158
158,158,158,158,133,134,134,134,134,134,134,134,134,134,134,134,134,134,134,134,134,134,134,134,134,134,134,134,134,134,134,134,134,134,134,134,134,134,134,134,134,134,134,134,134,134,134,134,134,134,139,139,139,139,139,139,53,139,139,139,12,26,26,26,26,26,26,26,26,26,27,9,21,139,139,139,139,139,139,139,139,139,139,139,139,139,139,139,52,139,139,139,139,139,139,52,135,158,158,158
158,158,158,111,137,134,134,134,134,134,134,134,134,134,134,134,134,134,134,134,134,134,134,134,134,134,134,134,134,134,134,134,134,134,134,134,134,134,134,134,134,134,134,134,134,134,134,134,134,134,134,134,139,139,139,139,139,139,139,12,27,28,29,28,28,29,29,30,28,14,9,21,139,139,139,139,139,139,139,139,139,139,139,139,139,52,139,139,139,139,139,139,139,139,139,114,157,158,158,158
158,158,158,133,134,134,134,134,134,134,134,134,134,134,134,134,134,134,134,134,134,134,134,134,134,134,134,134,134,134,134,134,134,134,134,134,134,134,134,134,134,134,134,134,134,134,134,77,134,134,139,139,139,139,53,139,139,139,12,27,9,10,10,10,10,10,10,10,10,10,21,18,99,139,139,139,139,139,139,52,139,139,77,139,139,139,139,23,27,139,139,139,139,139,139,135,158,158,158,158
158,158,158,133,134,134,134,134,134,134,134,134,134,134,134,134,134,134,134,134,134,134,134,134,134,134,134,134,134,134,134,134,134,134,134,134,134,134,134,134,134,134,134,134,134,134,134,134,134,134,134,139,139,139,53,139,139,12,27,9,21,139,139,139,139,139,139,139,139,139,139,52,139,139,53,139,139,139,139,139,139,139,139,139,139,139,23,51,50,24,24,27,139,139,114,157,158,158,158,158
158,158,158,133,134,134,134,134,134,134,134,134,134,134,134,134,134,134,134,134,134,134,134,134,134,134,134,134,134,134,134,134,134,134,134,134,134,134,134,134,134,134,134,134,134,134,134,134,134,134,134,134,139,139,99,139,12,27,9,21,139,139,139,139,139,139,139,139,139,139,139,139,139,139,139,139,139,139,139,139,139,139,139,139,139,139,89,29,46,46,28,93,139,53,135,158,158,158,158,158
158,158,158,133,134,134,134,134,134,134,134,134,134,134,134,134,134,134,134,134,134,134,134,134,134,134,134,134,134,134,134,134,134,134,134,134,134,134,134,134,134,134,134,134,134,134,134,134,134,134,134,134,139,139,139,12,27,9,21,139,139,139,139,139,139,139,139,139,139,139,53,139,139,139,139,52,139,139,139,139,139,139,139,139,139,139,139,72,73,74,75,139,139,114,157,158,158,158,158,158
158,158,158,133,134,134,134,134,134,134,134,134,134,134,134,134,134,134,134,134,134,134,134,134,134,134,134,134,134,134,134,134,134,134,134,134,134,134,134,134,134,134,134,134,134,134,134,134,134,134,134,134,134,18,12,27,9,21,139,139,139,139,139,53,139,139,139,139,139,139,139,139,139,139,99,139,139,139,139,139,139,139,139,139,139,139,139,139,139,139,139,139,139,135,158,158,158,158,158,158
158,158,158,75,134,134,134,134,134,134,134,134,134,134,134,134,134,134,134,134,134,134,134,134,134,134,134,134,134,134,134,134,134,134,76,76,134,134,134,134,134,134,134,134,134,134,134,134,134,134,134,134,134,18,19,29,17,134,139,139,139,139,139,139,139,139,139,99,139,77,139,139,139,139,139,139,139,139,139,139,139,139,139,139,139,139,139,139,139,139,139,139,139,135,158,158,158,158,158,158
158,158,158,155,115,134,134,134,134,134,134,134,134,134,134,134,134,134,134,134,134,134,134,134,134,33,33,134,134,134,134,134,134,134,134,134,134,134,134,134,134,134,134,134,134,134,134,134,134,134,134,134,134,18,19,14,17,134,139,139,139,139,139,139,139,139,139,139,139,139,139,139,139,139,139,139,139,139,139,139,139,139,139,139,139,77,139,139,139,139,139,139,52,135,158,158,158,158,158,158
158,158,158,158,155,156,156,115,134,134,134,134,134,134,134,134,134,134,134,52,134,134,134,98,134,134,33,33,134,134,134,134,134,134,134,134,134,134,134,134,134,134,134,134,134,134,134,134,134,134,134,134,134,18,19,28,17,134,134,139,139,139,139,139,139,139,139,139,139,139,139,139,139,139,139,139,52,139,77,139,139,139,52,139,139,139,139,139,139,139,139,139,114,157,158,158,158,158,158,158
158,158,158,158,158,158,158,133,134,134,134,134,134,134,134,134,134,134,134,134,134,134,134,134,134,134,134,134,134,134,134,134,134,134,134,134,134,134,134,33,33,134,134,134,134,134,134,134,134,134,134,99,134,134,19,29,17,139,139,139,53,139,139,139,139,139,139,139,139,139,139,139,139,139,134,134,134,134,139,139,139,139,139,139,139,139,139,139,139,139,139,139,135,158,158,158,158,158,158,158
158,158,158,158,158,158,158,155,156,156,156,115,134,134,52,134,134,134,134,134,134,134,134,134,134,134,134,134,134,134,134,134,134,134,134,134,134,134,12,-1610612717,-1610612717,-1610612717,-1610612717,-1610612717,-1610612724,134,134,134,134,134,134,134,134,18,19,14,17,134,139,134,134,134,139,139,99,139,134,134,139,139,139,139,139,134,134,139,139,139,134,134,139,139,134,139,139,139,134,52,134,139,139,114,157,158,158,158,158,158,158,158
158,158,158,158,158,158,158,158,158,158,158,155,115,134,134,134,134,134,134,134,134,134,134,134,134,134,134,134,134,134,134,134,134,134,134,134,134,134,19,134,134,134,134,28,-1073741805,134,134,134,134,134,134,134,134,134,19,29,-1073741805,134,134,134,134,134,134,134,134,134,134,134,134,134,134,53,134,134,134,134,134,134,134,134,134,134,134,134,134,134,134,134,134,134,134,76,158,158,158,158,158,158,158,158
158,158,158,158,158,158,158,158,158,158,158,158,155,156,115,134,134,98,134,134,134,134,134,134,134,134,134,134,134,134,134,134,134,134,134,134,134,134,19,134,134,134,134,28,-1610612709,-1610612717,-1610612717,-1610612717,-1610612717,-1610612717,-1610612717,-1610612717,-1610612717,-1610612717,27,28,-1073741805,134,134,134,134,134,134,134,134,134,134,134,77,134,134,134,134,134,134,134,53,134,134,134,134,134,134,134,53,134,134,134,134,134,134,135,158,158,158,158,158,158,158,158
158,158,158,158,158,158,158,158,158,158,158,158,158,158,155,156,156,115,134,134,134,134,134,134,134,134,134,134,134,134,134,134,30,134,134,134,134,134,19,134,134,134,134,28,28,28,29,28,28,28,28,28,28,28,29,28,-1073741805,134,134,134,134,134,134,134,134,134,134,77,134,134,53,134,134,134,134,134,134,134,134,134,134,134,134,134,134,134,134,134,134,134,134,135,158,158,158,158,158,158,158,158
158,158,158,158,158,158,158,158,158,158,158,158,158,158,158,158,158,133,134,76,134,134,134,134,134,134,134,134,134,134,134,134,134,134,134,134,134,134,19,134,134,134,134,28,-1073741797,-1073741798,-1073741798,-1073741798,-1073741798,-1073741798,-1073741798,-1073741798,-1073741798,-1073741798,1610612763,28,-1610612709,-1610612717,-1610612717,-1610612717,-1610612717,-1610612717,-1610612717,-1610612717,-1610612717,-1610612717,-1610612724,134,134,134,134,134,134,134,134,134,134,53,134,134,134,134,134,134,134,134,53,134,134,134,134,135,158,158,158,158,158,158,158,158
158,158,158,158,158,158,158,158,158,158,158,158,158,158,158,158,158,155,115,134,134,134,134,134,134,134,134,134,134,134,134,53,134,134,134,134,134,134,1610612748,1610612755,1610612755,1610612755,1610612755,1610612755,-1073741812,134,134,134,134,134,134,134,134,134,19,28,28,28,29,28,28,29,28,28,28,28,-1610612709,-1610612717,-1610612717,-1610612717,-1610612717,-1610612724,134,134,134,134,134,134,134,134,134,134,134,134,134,134,134,134,54,54,54,136,113,158,158,158,158,158,158,158
158,158,158,158,158,158,158,158,158,158,158,158,158,158,158,158,158,158,155,156,156,115,134,134,134,134,134,134,134,134,134,134,134,134,134,134,134,134,134,134,134,134,134,134,134,134,134,134,134,134,134,134,134,134,19,28,28,28,22,28,28,28,28,28,28,28,22,28,28,28,28,-1073741805,134,134,134,134,134,134,134,134,134,134,134,134,134,134,134,134,134,134,134,134,135,158,158,158,158,158,158,158
158,158,158,158,158,158,158,158,158,158,158,158,158,158,158,158,158,158,158,158,158,155,156,115,134,134,134,134,134,134,134,134,134,134,134,134,134,134,134,134,134,134,134,134,134,134,33,33,134,134,134,134,134,134,1610612748,1610612755,1610612755,1610612755,1610612755,1610612755,1610612755,1610612755,1610612755,1610612755,1610612755,1610612763,28,28,28,28,29,-1610612709,-1610612724,134,134,134,134,134,134,54,134,134,134,134,134,134,134,134,134,134,134,134,136,113,158,158,158,158,158,158
158,158,158,158,158,158,158,158,158,158,158,158,158,158,158,158,158,158,158,158,158,158,158,133,134,134,134,134,134,134,33,134,134,134,134,134,134,134,134,134,134,134,134,134,134,134,134,33,134,134,134,134,134,134,134,134,134,134,134,134,134,134,134,134,134,1610612748,1610612755,1610612755,1610612755,28,28,28,-1073741805,134,134,134,134,134,134,54,134,134,134,134,134,139,134,134,134,134,134,134,134,136,113,158,158,158,158,158
158,158,158,158,158,158,158,158,158,158,158,158,158,158,158,158,158,158,158,158,158,158,158,155,115,134,134,134,134,134,33,134,134,134,33,33,33,134,134,134,134,134,134,134,134,134,134,33,134,134,134,134,33,134,134,134,134,33,33,156,156,-1610612622,134,134,134,134,134,134,134,19,28,28,-1610612709,-1610612724,134,134,134,134,134,54,134,134,134,54,54,134,139,134,134,134,134,134,134,134,135,158,158,158,158,158
158,158,158,158,158,158,158,158,158,158,158,158,158,158,158,158,158,158,158,158,158,158,158,158,155,171,171,171,171,171,171,171,171,171,33,134,134,134,134,134,134,134,114,156,156,156,156,33,-1610612622,134,134,134,33,134,114,156,156,157,163,163,163,-1610612574,-1073741678,77,77,134,134,134,134,19,28,22,28,-1073741805,134,134,134,134,134,134,134,134,134,134,134,134,134,134,134,134,134,134,134,134,135,158,158,158,158,158
158,158,158,158,158,158,158,158,158,158,158,158,158,158,158,158,158,158,158,158,158,158,158,158,163,163,163,163,163,163,163,163,163,163,155,171,171,156,171,156,156,156,162,163,163,163,163,163,155,156,156,156,156,156,157,163,163,163,163,163,163,163,-1610612574,-1073741678,134,134,134,134,134,19,28,28,28,-1073741805,134,134,134,134,54,134,134,134,134,134,134,134,134,134,134,134,134,134,134,134,135,158,158,158,158,158
158,158,158,158,158,158,158,158,158,158,158,158,158,158,158,158,158,158,158,158,158,158,158,158,163,163,163,163,163,163,163,163,163,163,163,163,163,163,163,163,163,163,163,163,163,163,163,163,163,163,163,158,163,163,158,163,163,163,163,163,163,163,163,-1073741684,134,134,134,134,134,19,28,29,28,-1073741805,134,134,134,134,134,134,134,134,134,134,134,134,134,134,134,134,134,134,134,134,135,158,158,158,158,158
158,158,158,158,158,158,158,158,158,158,158,158,158,158,158,158,158,158,158,158,158,158,158,111,-1610612603,1610612876,1610612876,1610612876,1610612876,118,163,163,163,163,163,163,163,163,163,163,163,163,163,163,163,163,163,163,163,163,163,163,163,163,163,163,163,163,116,117,118,163,163,-1610612574,-1073741678,134,134,134,134,19,28,28,-1073741797,-1073741812,134,134,134,134,134,134,134,134,134,134,134,134,134,134,134,134,134,134,134,134,135,158,158,158,158,158
158,158,158,158,158,158,158,158,158,158,158,158,158,158,158,158,158,158,158,158,158,158,158,133,134,134,134,134,134,146,1610612876,1610612876,1610612876,118,163,163,163,163,163,163,163,163,163,163,163,163,163,163,163,163,163,163,163,163,163,163,163,163,138,139,25,26,26,26,32,134,134,77,77,19,28,28,-1073741805,134,134,134,134,134,134,134,134,134,134,134,54,134,134,134,134,134,134,134,134,134,135,158,158,158,158,158
158,158,158,158,158,158,158,158,158,158,158,158,158,158,158,158,158,158,158,158,158,111,112,137,134,134,134,134,134,134,134,134,134,146,1610612876,1610612876,1610612876,1610612876,1610612876,1610612876,1610612898,163,163,163,163,163,163,1610612854,118,163,163,163,163,163,163,163,163,163,160,161,162,163,163,163,-1073741684,134,134,134,12,27,22,-1073741797,-1073741812,134,134,134,134,134,134,134,134,134,134,134,54,134,134,134,134,134,134,134,134,134,135,158,158,158,158,158
158,158,158,158,158,158,158,158,158,158,158,158,158,158,158,158,158,158,111,112,112,137,134,134,134,134,134,134,134,134,134,134,134,134,134,134,134,134,134,134,146,1610612876,1610612876,1610612876,1610612876,1610612876,1610612876,1610612882,146,1610612876,1610612876,1610612876,1610612876,1610612876,1610612876,118,163,163,163,163,163,163,163,1610612854,1610612887,134,12,-1610612717,27,28,28,-1073741805,134,134,134,134,134,134,134,134,134,134,134,134,134,134,134,134,134,134,134,134,134,134,135,158,158,158,158,158
158,158,158,158,158,158,158,158,158,158,158,158,158,158,111,112,112,112,137,134,134,134,134,134,134,134,134,134,134,134,134,134,134,134,134,134,134,134,134,134,134,134,134,134,134,134,134,134,134,134,134,134,134,134,134,151,113,163,163,163,163,163,1610612854,1610612882,134,134,19,28,28,29,28,-1073741805,134,134,134,134,134,134,134,134,134,134,134,134,134,134,134,134,134,134,134,134,134,134,135,158,158,158,158,158
158,158,158,158,158,158,158,158,158,158,158,158,158,111,137,134,134,134,134,134,134,134,134,134,134,134,134,134,134,134,134,134,134,134,134,134,134,134,134,134,134,134,134,134,134,134,134,134,134,134,134,134,134,134,134,134,151,113,163,163,163,163,-1073741684,134,134,12,27,28,28,29,1610612755,-1073741812,134,134,134,134,134,77,77,134,54,134,134,134,134,134,134,134,134,134,134,134,134,134,135,158,158,158,158,158
158,158,158,158,158,158,158,158,158,158,158,158,111,137,134,134,134,134,134,134,134,134,134,134,134,134,134,134,134,134,134,134,12,-1610612717,-1610612717,-1610612717,-1610612717,-1610612717,-1610612717,-1610612717,-1610612717,-1610612717,-1610612717,-1610612717,-1610612717,-1610612717,-1610612717,-1610612717,-1610612724,134,134,134,134,134,134,134,134,145,163,163,163,1610612854,152,77,12,27,28,28,-1073741797,-1073741812,134,134,134,134,134,134,54,134,134,134,134,134,134,134,134,134,134,134,134,134,134,134,77,114,157,158,158,158,158,158
158,158,158,158,158,158,158,158,158,158,111,112,137,134,134,134,134,134,134,134,134,134,134,134,134,134,134,134,12,-1610612717,-1610612717,-1610612717,27,28,28,28,28,28,28,28,28,28,30,28,28,28,28,28,-1610612709,-1610612717,-1610612724,134,134,134,134,134,134,151,1610612876,1610612876,1610612876,152,134,77,19,28,22,-1073741797,-1073741812,134,134,134,134,134,134,134,134,134,134,77,77,134,134,134,134,134,134,134,134,134,134,134,134,135,158,158,158,158,158,158
158,158,158,158,158,158,158,158,158,111,137,134,134,134,30,30,134,134,134,134,134,134,134,38,39,40,134,134,19,28,28,22,22,28,28,28,28,30,28,28,28,28,28,28,28,22,28,28,28,28,30,-1610612717,-1610612717,-1610612717,-1610612717,-1610612717,-1610612717,-1610612717,-1610612717,-1610612717,-1610612717,-1610612717,-1610612717,-1610612717,27,28,28,-1073741805,134,134,134,134,134,134,54,134,134,134,134,134,134,54,134,134,134,134,134,77,134,134,134,134,114,157,158,158,158,158,158,158
158,158,158,158,158,158,158,158,111,137,134,134,134,134,134,134,134,134,134,134,134,134,134,60,61,62,134,134,19,28,28,28,28,28,28,-1073741797,1610612755,1610612755,1610612755,1610612755,1610612755,1610612755,1610612755,1610612755,1610612755,1610612755,1610612763,28,28,28,30,30,28,28,28,28,30,28,28,28,28,28,28,28,28,28,28,-1073741805,134,134,77,134,33,134,54,134,134,134,134,134,134,134,134,54,54,134,134,134,134,134,134,114,157,158,158,158,158,158,158,158
158,158,158,158,158,158,158,158,133,134,134,134,134,134,134,134,134,134,134,134,134,134,134,82,83,84,134,134,1610612748,1610612755,1610612755,1610612755,1610612755,1610612755,1610612755,-1073741812,134,134,134,134,134,134,134,134,134,134,1610612748,1610612755,1610612755,1610612763,28,28,28,28,28,28,28,28,28,22,22,28,28,29,28,28,-1073741797,-1073741812,134,134,134,134,134,134,134,134,134,134,134,134,134,134,134,134,134,134,134,134,77,134,134,135,158,158,158,158,158,158,158,158
158,158,158,158,158,158,158,158,133,134,134,134,134,134,134,134,134,134,134,134,134,134,134,134,134,134,134,134,134,134,134,134,134,134,134,134,134,134,134,134,134,134,134,134,134,134,134,134,134,1610612748,1610612755,1610612755,1610612755,1610612755,1610612755,1610612755,1610612755,1610612763,28,28,28,28,28,-1073741797,1610612755,1610612755,-1073741812,134,134,134,134,134,77,134,134,134,134,134,134,54,54,134,134,134,134,134,134,134,134,77,134,135,158,158,158,158,158,158,158,158
158,158,158,158,158,158,158,158,57,134,134,134,134,134,134,134,134,134,134,134,134,134,134,134,134,134,134,134,134,134,134,134,134,134,134,134,134,134,134,134,134,134,134,134,134,134,134,33,134,134,134,134,134,134,134,134,134,1610612748,1610612755,1610612755,1610612755,1610612755,1610612755,-1073741812,134,134,134,134,134,134,134,98,134,134,134,134,134,134,54,54,54,134,134,134,134,134,134,134,134,77,77,135,158,158,158,158,158,158,158,158
158,158,158,158,158,158,158,158,133,134,134,134,134,30,134,134,134,33,134,134,134,134,134,134,134,134,134,30,134,134,134,33,134,134,134,134,134,134,33,134,134,134,134,134,134,134,134,134,134,134,134,134,134,134,134,134,134,134,134,134,134,134,134,134,134,134,134,134,134,134,134,134,134,134,134,134,134,134,54,31,54,54,134,54,134,134,54,134,134,134,134,76,158,158,158,158,158,158,158,158
158,158,158,158,158,158,158,158,133,134,134,134,134,134,53,134,134,134,134,134,134,134,134,134,134,134,134,134,53,134,134,134,134,134,134,134,134,134,134,134,134,134,134,134,134,134,134,77,134,134,134,134,134,134,134,134,134,134,134,134,134,134,134,77,134,134,134,134,134,134,134,134,134,134,134,134,134,54,54,134,134,134,134,134,134,134,54,54,134,134,134,135,158,158,158,158,158,158,158,158
158,158,158,158,158,158,158,111,137,134,134,134,53,134,134,134,134,77,134,134,134,33,134,134,53,134,134,134,134,134,134,77,134,134,134,134,134,32,77,134,134,134,134,134,134,134,98,134,134,134,134,134,134,134,134,98,134,98,98,134,134,134,98,134,134,134,134,134,134,134,134,134,134,134,134,55,55,55,55,134,134,134,134,134,134,134,134,134,54,54,54,136,113,158,158,158,158,158,158,158
158,158,158,158,158,158,111,137,134,134,134,134,134,134,134,134,98,134,134,33,134,134,134,134,134,134,134,134,134,134,98,134,134,32,134,52,134,98,134,134,134,134,134,134,134,134,53,134,134,134,134,134,134,134,134,134,134,98,98,134,134,134,52,134,134,134,134,134,134,134,134,134,134,134,134,134,31,55,134,134,134,134,134,134,134,32,32,134,134,134,54,134,136,113,158,158,158,158,158,158
158,158,158,158,158,158,133,134,134,134,134,134,134,134,134,134,134,134,134,134,76,134,134,134,134,134,134,134,134,134,134,52,30,134,134,52,134,134,77,134,134,134,134,134,134,98,98,134,134,134,134,76,134,76,98,134,134,134,134,134,134,134,134,134,134,134,134,134,134,134,134,134,134,134,134,31,134,134,134,134,134,134,134,134,134,134,134,134,134,134,54,134,134,135,158,158,158,158,158,158
158,158,158,158,158,111,137,33,134,134,134,134,134,134,134,134,30,134,76,134,134,99,134,134,134,134,134,53,134,33,134,134,134,53,77,134,134,134,77,134,32,134,134,134,134,134,134,98,134,134,134,53,134,76,98,134,134,134,134,134,134,134,134,134,52,134,134,134,77,134,134,134,134,134,134,55,55,134,134,134,31,46,32,30,134,134,134,134,134,134,54,134,134,136,112,113,158,158,158,158
158,158,158,158,158,133,134,134,134,134,134,134,134,134,134,134,134,53,134,99,134,134,134,134,33,134,134,53,134,134,134,134,134,134,134,134,134,134,52,134,134,134,134,134,134,134,134,134,98,134,134,134,134,134,134,76,76,77,134,134,76,30,77,134,134,134,76,134,31,134,134,134,55,55,134,134,134,134,134,30,46,134,32,134,30,134,47,134,134,134,54,134,134,134,134,135,158,158,158,158
158,158,158,158,158,133,76,53,134,134,134,134,134,134,134,134,53,134,134,134,134,134,134,134,134,134,134,134,76,134,134,134,134,134,134,32,134,134,134,134,134,77,134,134,134,134,53,134,134,98,98,134,134,76,134,98,52,134,134,134,134,76,76,134,134,134,134,134,134,76,134,54,134,55,134,134,134,134,134,32,134,134,47,47,47,134,93,92,134,134,54,134,134,134,134,135,158,158,158,158
158,158,158,158,158,133,134,99,134,134,134,33,134,33,134,134,134,134,134,134,134,134,134,76,134,134,134,134,134,99,134,134,134,52,134,134,134,134,134,134,134,30,134,134,134,134,134,134,53,134,134,134,134,98,134,31,77,77,77,134,134,134,134,134,134,76,134,134,134,134,134,134,134,54,134,134,134,134,134,134,32,47,134,134,134,134,134,134,54,134,54,54,134,54,134,135,158,158,158,158
158,158,158,158,158,75,134,134,134,134,134,134,134,134,134,134,134,33,134,134,134,134,134,134,99,134,53,134,134,134,134,33,134,134,134,134,77,134,134,134,134,134,53,134,134,134,134,134,134,98,134,134,134,98,134,98,134,134,77,134,134,134,134,77,31,31,134,76,76,134,134,55,55,54,54,134,54,134,134,90,91,92,134,134,134,134,54,54,54,134,134,54,134,31,134,135,158,158,158,158
158,158,158,111,112,137,53,53,134,134,76,134,76,134,134,134,134,134,134,31,33,134,134,134,134,134,134,134,134,134,134,134,134,134,134,134,134,134,134,134,134,134,134,134,134,134,134,134,134,134,134,134,134,98,134,98,134,134,134,52,134,134,134,134,31,134,134,33,33,134,33,54,54,54,134,134,134,54,134,134,134,134,134,134,134,134,134,31,134,134,134,134,134,134,134,135,158,158,158,158
158,158,158,133,77,134,134,134,134,31,134,99,134,99,134,134,76,134,52,134,134,134,134,53,134,134,134,33,134,30,134,77,134,134,134,134,134,32,134,134,134,134,134,134,134,134,134,134,53,134,134,134,134,98,134,134,134,134,134,134,134,134,134,134,134,134,33,134,134,33,33,134,54,54,134,134,134,54,134,134,134,134,134,134,134,134,134,134,134,134,134,134,54,54,134,135,158,158,158,158
158,158,158,133,134,31,134,134,52,134,134,134,134,134,134,134,134,99,134,76,134,134,134,134,31,134,134,134,134,134,98,134,134,134,134,52,134,134,134,134,134,134,134,134,134,134,99,77,134,98,134,134,134,134,98,134,134,31,77,77,134,55,55,55,134,134,134,134,134,33,33,134,54,54,134,134,134,54,134,114,156,156,156,115,134,134,134,134,134,134,134,134,134,134,134,135,158,158,158,158
158,158,158,133,52,33,134,134,134,134,134,31,134,114,156,156,115,134,134,134,99,134,134,52,134,134,76,134,134,134,134,134,134,134,134,134,134,134,77,134,134,134,134,134,134,53,134,134,134,134,134,134,149,134,98,134,134,134,134,134,134,134,134,134,134,134,134,55,53,55,33,54,54,134,134,134,134,54,114,157,158,158,158,155,156,156,115,134,134,134,134,31,134,54,134,135,158,158,158,158
158,158,158,133,134,134,134,134,134,134,52,134,114,157,158,158,155,115,134,134,31,134,134,134,134,134,134,99,134,134,134,134,134,134,134,134,134,134,134,134,134,134,134,134,77,53,98,98,134,134,134,134,149,149,149,134,134,134,134,134,134,134,134,134,134,134,33,55,55,134,54,54,54,134,134,134,134,54,135,158,158,158,158,158,158,158,155,115,134,134,134,134,134,54,134,135,158,158,158,158
158,158,158,133,76,134,134,134,134,134,134,134,135,158,158,158,158,133,134,52,134,134,134,134,134,134,134,134,134,134,134,134,30,134,134,134,134,134,134,134,134,134,134,134,99,53,98,98,134,134,134,134,149,149,149,149,149,46,134,134,134,134,53,134,134,134,134,134,134,134,54,54,33,134,134,134,54,114,157,158,158,158,158,158,158,158,158,133,134,134,134,134,134,54,134,135,158,158,158,158
158,158,158,133,134,134,134,134,134,134,134,134,136,113,158,158,158,155,115,134,134,134,134,134,134,134,134,134,134,31,134,134,134,53,134,134,134,32,134,134,33,134,134,134,77,53,134,98,98,134,134,134,134,149,149,149,134,23,24,24,25,134,134,134,50,134,134,134,55,134,54,134,134,134,134,134,54,136,113,158,158,158,158,158,158,158,158,133,134,134,134,31,134,54,134,135,158,158,158,158
158,158,158,133,134,134,134,53,134,134,134,134,134,136,113,158,158,111,137,134,134,134,134,134,134,134,134,134,52,134,134,134,134,134,134,52,134,134,134,134,134,134,134,134,134,77,134,134,134,134,134,134,134,149,149,46,23,51,46,46,49,134,134,134,33,134,134,134,134,134,54,134,134,134,134,54,134,134,136,113,158,158,158,158,158,158,111,137,134,134,134,134,134,54,114,157,158,158,158,158
158,158,158,133,134,53,134,134,134,134,33,134,134,134,136,112,112,137,134,134,134,134,134,134,134,134,134,134,134,134,33,134,134,134,134,134,134,134,77,134,77,134,134,134,134,99,98,99,99,134,134,98,134,134,149,134,45,134,134,28,93,134,134,33,134,134,134,134,134,134,54,134,134,134,134,54,54,134,134,136,112,113,158,158,158,111,137,134,134,134,134,134,54,134,135,158,158,158,158,158
158,158,158,133,134,33,134,134,31,134,134,134,134,134,134,134,134,33,134,134,134,134,134,134,134,134,134,134,134,134,134,134,134,134,134,134,32,134,134,98,134,134,134,134,134,134,134,134,134,134,134,134,134,134,134,134,72,73,74,75,134,134,134,33,33,134,134,134,134,134,54,54,54,54,54,134,54,54,134,134,134,136,112,112,112,137,134,134,134,134,134,134,54,114,157,158,158,158,158,158
158,158,158,133,53,134,134,52,134,76,134,134,134,134,53,134,134,134,134,134,134,134,134,134,134,134,134,134,134,76,134,134,134,134,52,134,33,134,134,32,134,134,134,134,134,77,134,134,134,134,134,134,134,134,46,134,134,134,134,134,134,134,134,134,134,134,134,134,31,134,134,134,134,31,134,134,134,134,54,134,134,134,134,134,134,134,134,134,134,134,134,54,114,157,158,158,158,158,158,158
158,158,158,133,76,134,134,134,33,134,99,134,33,134,134,134,76,134,134,134,134,134,134,134,134,134,134,134,134,134,99,134,134,134,134,134,134,52,134,33,134,134,134,134,134,134,134,134,134,134,134,134,134,134,134,134,46,31,77,77,134,134,134,134,134,134,31,134,134,134,134,134,134,134,134,134,134,134,54,54,134,134,134,134,134,134,31,134,134,134,54,134,135,158,158,158,158,158,158,158
158,158,158,133,134,134,77,134,134,134,134,53,134,134,134,134,134,99,53,134,53,33,134,134,134,134,134,134,134,134,134,134,134,134,134,134,77,134,134,134,77,134,134,134,134,134,134,134,134,134,134,134,134,134,134,134,134,134,134,31,31,134,134,134,134,134,134,134,134,134,134,31,134,134,134,134,134,134,134,54,134,134,134,134,134,134,134,134,134,134,54,134,135,158,158,158,158,158,158,158
158,158,158,155,115,134,53,76,134,134,134,76,134,134,134,134,134,134,134,134,134,134,31,134,134,134,134,134,134,134,134,134,134,134,32,98,134,134,30,77,134,134,134,134,134,134,134,114,156,156,156,156,115,134,134,134,134,134,134,134,134,134,134,134,134,134,134,134,134,134,134,134,134,134,134,134,134,134,134,54,54,54,31,134,54,54,54,54,54,54,54,114,157,158,158,158,158,158,158,158
158,158,158,158,155,156,156,156,115,134,134,77,99,134,134,134,53,134,134,134,76,52,134,134,134,53,134,134,134,134,134,134,52,134,134,134,134,134,98,53,134,134,134,134,114,156,156,157,158,158,158,158,155,156,115,134,134,134,134,134,134,134,134,134,134,134,134,134,134,134,134,134,134,134,134,134,134,134,134,134,134,134,134,134,134,134,134,134,134,114,156,157,158,158,158,158,158,158,158,158
158,158,158,158,158,158,158,158,155,156,156,115,134,134,134,134,134,134,77,114,156,156,156,156,156,156,74,156,156,156,156,73,115,134,134,77,134,134,134,134,134,134,134,114,157,158,158,158,158,158,158,158,158,158,155,156,156,156,156,156,156,156,156,156,156,156,156,156,156,156,156,156,156,156,156,156,156,156,156,115,134,134,134,134,134,134,134,134,134,135,158,158,158,158,158,158,158,158,158,158
158,158,158,158,158,158,158,158,158,158,158,155,156,74,156,156,156,73,156,157,158,158,158,158,158,158,158,158,158,158,158,158,155,156,156,156,156,156,156,156,77,156,156,157,158,158,158,158,158,158,158,158,158,158,158,158,158,158,158,158,158,158,158,158,158,158,158,158,158,158,158,158,158,158,158,158,158,158,158,155,156,156,156,156,156,156,156,156,156,157,158,158,158,158,158,158,158,158,158,158
158,158,158,158,158,158,158,158,158,158,158,158,158,158,158,158,158,158,158,158,158,158,158,158,158,158,158,158,158,158,158,158,158,158,158,158,158,158,158,158,158,158,158,158,158,158,158,158,158,158,158,158,158,158,158,158,158,158,158,158,158,158,158,158,158,158,158,158,158,158,158,158,158,158,158,158,158,158,158,158,158,158,158,158,158,158,158,158,158,158,158,158,158,158,158,158,158,158,158,158
158,158,158,158,158,158,158,158,158,158,158,158,158,158,158,158,158,158,158,158,158,158,158,158,158,158,158,158,158,158,158,158,158,158,158,158,158,158,158,158,158,158,158,158,158,158,158,158,158,158,158,158,158,158,158,158,158,158,158,158,158,158,158,158,158,158,158,158,158,158,158,158,158,158,158,158,158,158,158,158,158,158,158,158,158,158,158,158,158,158,158,158,158,158,158,158,158,158,158,158
158,158,158,158,158,158,158,158,158,158,158,158,158,158,158,158,158,158,158,158,158,158,158,158,158,158,158,158,158,158,158,158,158,158,158,158,158,158,158,158,158,158,158,158,158,158,158,158,158,158,158,158,158,158,158,158,158,158,158,158,158,158,158,158,158,158,158,158,158,158,158,158,158,158,158,158,158,158,158,158,158,158,158,158,158,158,158,158,158,158,158,158,158,158,158,158,158,158,158,158
